    0.571355011665478855E+03   -0.509307842557221147E+01    0.713551664806211017E+00   -0.336788426977081290E+01   -0.433613167268442901E+01   -0.786647222026391457E+01    0.288266484694639294E+05
    0.484316002835497898E+03   -0.588453674863815035E+01    0.809159694046061140E+00   -0.199242532918320858E+01   -0.246154727726215672E+01   -0.405587825941248070E+01    0.288266586999579449E+05
    0.526740051557307879E+03   -0.593569493071687848E+01    0.674913968942955966E+00   -0.263641397509302067E+01   -0.359321769322634665E+01   -0.707350355827806609E+01    0.288266744066754836E+05
    0.584237538467118384E+03   -0.451576106124028609E+01    0.778834499489208465E+00   -0.268967042216878482E+01   -0.365275391221723300E+01   -0.634208962316116320E+01    0.288267017561131361E+05
    0.521820559731261824E+03   -0.578617333539743939E+01    0.750719883595821424E+00   -0.171257022111586465E+01   -0.176339284921051132E+01   -0.676052366815029782E+01    0.288267029430559887E+05
    0.556516855377559864E+03   -0.495776169505129971E+01    0.769470763767463484E+00   -0.214856145528420583E+01   -0.343532309669390123E+01   -0.555399369363718520E+01    0.288267405428540951E+05
    0.621328523999405775E+03   -0.382405329957382367E+01    0.882144332543941645E+00   -0.285857552703007922E+01   -0.359077680656966791E+01   -0.682892725519104804E+01    0.288267529828643128E+05
    0.515037026613394232E+03   -0.571634411240178419E+01    0.752294756955576016E+00   -0.226619906668375037E+01   -0.230377454190416131E+01   -0.370590196843428199E+01    0.288267669018039669E+05
    0.574371251779909016E+03   -0.443525826428906811E+01    0.823508365942095200E+00   -0.225437443141034155E+01   -0.251753846216732047E+01   -0.535983727963028578E+01    0.288267760424675907E+05
    0.565078686389761060E+03   -0.445320853876206346E+01    0.899465359100729223E+00   -0.257501683719594254E+01   -0.369787939555677259E+01   -0.532678269071398969E+01    0.288267994501382200E+05
    0.484219399710321738E+03   -0.599412342097201556E+01    0.786000966661544398E+00   -0.198227264693137162E+01   -0.329841643198147860E+01   -0.660647933044368330E+01    0.288268077119877016E+05
    0.628097374475092806E+03   -0.415937370095111270E+01    0.797240579545569927E+00   -0.376421303005013907E+01   -0.387465741920729823E+01   -0.799146647688244371E+01    0.288268182801815710E+05
    0.521658417380126366E+03   -0.599247631185768004E+01    0.675839001733363309E+00   -0.178431319004651190E+01   -0.162559326010159921E+01   -0.757601949097670069E+01    0.288268303909712922E+05
    0.544997388852022937E+03   -0.493223195236975620E+01    0.796242723902225502E+00   -0.187661498983227126E+01   -0.419493816435300992E+01   -0.483692747657727384E+01    0.288268434384752472E+05
    0.530324909643794285E+03   -0.556909209863351240E+01    0.738799031627861424E+00   -0.329549525400025178E+01   -0.301474544239796316E+01   -0.499348299874879142E+01    0.288268577394795502E+05
    0.541858276369008536E+03   -0.527659427878588705E+01    0.718912377343174924E+00   -0.206433108049495662E+01   -0.204824291188366203E+01   -0.513848788532647838E+01    0.288268605741212887E+05
    0.498145378306883401E+03   -0.598237003609428974E+01    0.776357890757919833E+00   -0.181639939192929933E+01   -0.275926200263788957E+01   -0.482165152960168442E+01    0.288268698160555468E+05
    0.545654919671453513E+03   -0.537803993743217923E+01    0.749021181538164216E+00   -0.236597441481094695E+01   -0.161273523620313330E+01   -0.680650353197071301E+01    0.288268698485641762E+05
    0.505775184582685540E+03   -0.570605216899909173E+01    0.798589085258909814E+00   -0.138312441469855063E+01   -0.403645245549681064E+01   -0.635923433179045450E+01    0.288269038322857450E+05
    0.605964607312189401E+03   -0.414583715050272694E+01    0.852749678395093302E+00   -0.286648903814880640E+01   -0.382774557648945102E+01   -0.744254917787541448E+01    0.288269075742865243E+05
    0.603449469424136623E+03   -0.407533818533641146E+01    0.881590824452357591E+00   -0.306061853753465929E+01   -0.298056218762310543E+01   -0.746527046934820415E+01    0.288269167085121553E+05
    0.572947588622258309E+03   -0.455855651533269413E+01    0.808492422410674871E+00   -0.251578341987149656E+01   -0.346492996066648296E+01   -0.403916141864697487E+01    0.288269278983572985E+05
    0.555308681463162429E+03   -0.508799722089131468E+01    0.787006406636885258E+00   -0.375327095300343672E+01   -0.322360522220693113E+01   -0.694426397058226907E+01    0.288269498171799205E+05
    0.581457427529760821E+03   -0.436731797428330459E+01    0.861309481735545335E+00   -0.295443685122355237E+01   -0.482826729213541483E+01   -0.645123971009881991E+01    0.288270153735201238E+05
    0.590652745964324822E+03   -0.443551771335790512E+01    0.820393966167363486E+00   -0.276498466576341428E+01   -0.421636761781610225E+01   -0.618224642304669025E+01    0.288270159411417990E+05
    0.515251477008202301E+03   -0.553738464274614994E+01    0.761042843017558202E+00   -0.149740743036923796E+01   -0.319019247240133730E+01   -0.641852901881021065E+01    0.288270393162630062E+05
    0.623144904858906216E+03   -0.393367595720399521E+01    0.840855563223326219E+00   -0.338192150599589603E+01   -0.422350652967677043E+01   -0.730795815862230302E+01    0.288270586089226381E+05
    0.594375513748037179E+03   -0.473436920340181722E+01    0.748916265010602822E+00   -0.363306634841996701E+01   -0.452764346727707157E+01   -0.673762125447650284E+01    0.288270613396419758E+05
    0.486580131026939512E+03   -0.587529277349631940E+01    0.814454981855554205E+00   -0.258579058117625848E+01   -0.310340082109691640E+01   -0.460116947627113859E+01    0.288270981454694011E+05
    0.509918592156025966E+03   -0.536898831851424774E+01    0.859763352521004443E+00   -0.158276180604450545E+01   -0.358745347604985376E+01   -0.728602900447298651E+01    0.288271265025946559E+05
    0.508354199702911046E+03   -0.556158211515700884E+01    0.775708572724319589E+00   -0.185931156393929253E+01   -0.327402957295776531E+01   -0.614829515611759714E+01    0.288271462685102269E+05
    0.546355762266496299E+03   -0.484838625268498191E+01    0.828099785287829793E+00   -0.175756612209531138E+01   -0.372425919392094329E+01   -0.421586800854402810E+01    0.288271620443804131E+05
    0.530133202066435501E+03   -0.560972434365556794E+01    0.723828230368687042E+00   -0.238252532078255008E+01   -0.360078485496839029E+01   -0.755337271147637601E+01    0.288272065822390796E+05
    0.509114044738284690E+03   -0.585552344091377730E+01    0.754896577688976889E+00   -0.311360869372926352E+01   -0.399774426259997995E+01   -0.489119379211582661E+01    0.288272107863681376E+05
    0.591658912975442377E+03   -0.443241040806992892E+01    0.821997559082287776E+00   -0.329071201395679847E+01   -0.489561901462946381E+01   -0.538645640097027290E+01    0.288272201467074556E+05
    0.537947634939964473E+03   -0.498842343285035472E+01    0.828726402737773205E+00   -0.249546805663190963E+01   -0.397168638685421271E+01   -0.488716473445974930E+01    0.288272238419340028E+05
    0.511243325549302767E+03   -0.564851780581463014E+01    0.806719120284095093E+00   -0.319467177568486971E+01   -0.222001598851290360E+01   -0.771621337357805270E+01    0.288272515335527023E+05
    0.505713097318161715E+03   -0.552301843228688050E+01    0.817103978141377474E+00   -0.227451911731428869E+01   -0.362044910755213234E+01   -0.479202280302445338E+01    0.288272676391108289E+05
    0.525307020725716598E+03   -0.527231222165636115E+01    0.790695019051908421E+00   -0.236440414655606279E+01   -0.395297115725859793E+01   -0.413466818193164976E+01    0.288272803134302339E+05
    0.477920948046479339E+03   -0.597564890423554917E+01    0.833012022722745771E+00   -0.197873942366507727E+01   -0.362037285938038789E+01   -0.634883071683989009E+01    0.288272847807301587E+05
    0.536295829608799750E+03   -0.550735473502090400E+01    0.728383049408799277E+00   -0.165638972608548229E+01   -0.190433623144419073E+01   -0.732942875233759583E+01    0.288273013856323669E+05
    0.544606570578617720E+03   -0.502365399045978300E+01    0.810338133164507424E+00   -0.298219022168387404E+01   -0.441343485236994404E+01   -0.485562710616692073E+01    0.288273116389005008E+05
    0.494053362599938396E+03   -0.587668659128959892E+01    0.808855599012996196E+00   -0.251808104388641585E+01   -0.420364135528532668E+01   -0.797837374849466485E+01    0.288273162018523763E+05
    0.567142203482685659E+03   -0.488075139244435796E+01    0.760874657111560215E+00   -0.314782598968220384E+01   -0.447674752887555272E+01   -0.746440514721774129E+01    0.288273638847146394E+05
    0.515083881436580782E+03   -0.547008037467429808E+01    0.779277383084489128E+00   -0.208934276433736432E+01   -0.191457366451430566E+01   -0.491257413918573338E+01    0.288273786531859078E+05
    0.524952855072795842E+03   -0.541409152889355294E+01    0.806437570774759083E+00   -0.134475871220798382E+01   -0.388149393873624060E+01   -0.798105041906845258E+01    0.288273875676000025E+05
    0.562019742228257542E+03   -0.457403171496384076E+01    0.885822963204270453E+00   -0.267780167133102243E+01   -0.282848143864264134E+01   -0.763103193553639958E+01    0.288273959124587673E+05
    0.615243459796147363E+03   -0.431727066665720116E+01    0.794298490120874279E+00   -0.375371811719576609E+01   -0.456693725312187926E+01   -0.664160366340524533E+01    0.288273975280929590E+05
    0.485139636464253101E+03   -0.582114750842754347E+01    0.843238241732554017E+00   -0.177467219059437120E+01   -0.330908474976426881E+01   -0.711155558088558504E+01    0.288274283352582352E+05
    0.531192074896021836E+03   -0.510352696854160381E+01    0.827630302629064563E+00   -0.189790531204099899E+01   -0.448423973520470298E+01   -0.477414862185072408E+01    0.288274322042001077E+05
    0.504581372152304368E+03   -0.562911554294335481E+01    0.790205244124288608E+00   -0.154404530359307834E+01   -0.279536342935780091E+01   -0.782047242125727493E+01    0.288274568231649901E+05
    0.571626995443497776E+03   -0.426583575033786033E+01    0.904723489284710469E+00   -0.201522898077360590E+01   -0.305805332454891854E+01   -0.722975568363809273E+01    0.288274592542007522E+05
    0.595362520868839624E+03   -0.408386840157984654E+01    0.896278842108605200E+00   -0.279945047476444042E+01   -0.292166683288095363E+01   -0.652785864295372420E+01    0.288274714691251065E+05
    0.516212572467583186E+03   -0.524038844622951494E+01    0.869284118312041110E+00   -0.230786571243554661E+01   -0.291988546173562380E+01   -0.661363516622163861E+01    0.288274792098434518E+05
    0.585036529446254804E+03   -0.437925763292598091E+01    0.868713872338887083E+00   -0.289914068773568001E+01   -0.336220977598377768E+01   -0.709530594896134570E+01    0.288274861712465135E+05
    0.554110400726703347E+03   -0.458946992793502062E+01    0.897295070232343117E+00   -0.153162154603741563E+01   -0.189699239420226373E+01   -0.774866121299294619E+01    0.288274901795517580E+05
    0.530659819251247995E+03   -0.543837355965970204E+01    0.787396808421633843E+00   -0.279485229188137385E+01   -0.394104303884744933E+01   -0.785056331217478132E+01    0.288274922051736685E+05
    0.520287003469498018E+03   -0.546755055380981680E+01    0.758591541317679030E+00   -0.243069585341467143E+01   -0.375585992445848049E+01   -0.434974479560750105E+01    0.288275120834463705E+05
    0.541839253136079606E+03   -0.500391704463971720E+01    0.810667493010749585E+00   -0.170948360432050261E+01   -0.311170345583872088E+01   -0.413121915595563394E+01    0.288275183316892580E+05
    0.578668729671630786E+03   -0.453019217608360591E+01    0.817611547556662988E+00   -0.340961309849686600E+01   -0.386784578565475901E+01   -0.628806412135929982E+01    0.288275309587360680E+05
    0.549964289527907567E+03   -0.501860109734392168E+01    0.774386781049899886E+00   -0.291518662131139106E+01   -0.253516979011326171E+01   -0.703682839942145044E+01    0.288276005122085880E+05
    0.539429025296861255E+03   -0.522857878622070782E+01    0.738460991503669062E+00   -0.207175610149214595E+01   -0.214356385866794419E+01   -0.529103336612614150E+01    0.288276060467585521E+05
    0.500774685982738333E+03   -0.591861395203370133E+01    0.787399454526279907E+00   -0.329059809925923563E+01   -0.240374984891800469E+01   -0.706627835346770450E+01    0.288276076995953117E+05
    0.588408884208264453E+03   -0.420120147609943295E+01    0.871439717907093070E+00   -0.265597820432619702E+01   -0.374010911936112667E+01   -0.477245406463195110E+01    0.288276219795125980E+05
    0.525029573631575090E+03   -0.585638546283144290E+01    0.734066021289776938E+00   -0.312965283358501090E+01   -0.377365118022270174E+01   -0.656537925094321917E+01    0.288276399959588562E+05
    0.578470849641801806E+03   -0.437684854842619675E+01    0.879273350632097772E+00   -0.280726133727083660E+01   -0.262203133486874584E+01   -0.694523910839513015E+01    0.288276407032935240E+05
    0.489474402345210081E+03   -0.598273960403853611E+01    0.801068075044466865E+00   -0.219695897024602260E+01   -0.458221475281919499E+01   -0.690930168779340725E+01    0.288276450851058471E+05
    0.549388212564585501E+03   -0.485534904845193083E+01    0.860768288013999072E+00   -0.270295527957459125E+01   -0.286638135591427634E+01   -0.745762890106893117E+01    0.288276520737138890E+05
    0.517558661311398964E+03   -0.547857889474357673E+01    0.841124779421553059E+00   -0.132020699321554069E+01   -0.171350129147371621E+01   -0.602383185029519375E+01    0.288276570684413819E+05
    0.518777064868613820E+03   -0.532128415415965961E+01    0.838093885737912547E+00   -0.147063121343489200E+01   -0.294986077771850663E+01   -0.381578751067145028E+01    0.288276590235633703E+05
    0.521256891111368645E+03   -0.580745422069407535E+01    0.685665645162500059E+00   -0.237063744358572492E+01   -0.292481920537623719E+01   -0.538560358583349874E+01    0.288277022757105588E+05
    0.550146563352217299E+03   -0.458845428166667624E+01    0.910936612676980340E+00   -0.177354696437630643E+01   -0.194101761039945675E+01   -0.796119862483550644E+01    0.288277205331452205E+05
    0.502487442006781293E+03   -0.575076904335697225E+01    0.799493028964155195E+00   -0.189909947885508412E+01   -0.346172779477564863E+01   -0.734975413223747243E+01    0.288277383670994132E+05
    0.502386508051877684E+03   -0.573150811322200493E+01    0.822374163032601690E+00   -0.125673274269449120E+01   -0.285027215740280315E+01   -0.700791503555688333E+01    0.288277662577099291E+05
    0.563639554062601633E+03   -0.449934759045296939E+01    0.870734635545056257E+00   -0.201321926036299192E+01   -0.200757023333826012E+01   -0.672110039968073458E+01    0.288277975853796052E+05
    0.557570640878087147E+03   -0.487586168388166197E+01    0.775720825501212907E+00   -0.224510698338934400E+01   -0.355790524633929195E+01   -0.480757850992737268E+01    0.288278037760214429E+05
    0.497246772233823492E+03   -0.594773326769060073E+01    0.783176866460477461E+00   -0.196542871810562758E+01   -0.151855544230428485E+01   -0.626622804774048348E+01    0.288278092512388903E+05
    0.552038200918190114E+03   -0.517948178710544216E+01    0.762691674206765091E+00   -0.338044679317397545E+01   -0.291631221144490294E+01   -0.559377130775937470E+01    0.288278102864812172E+05
    0.520278118282302898E+03   -0.517652052260569295E+01    0.865365110336323462E+00   -0.205166186152535257E+01   -0.216840511889033394E+01   -0.467682248481265894E+01    0.288278120947039679E+05
    0.512410467381362992E+03   -0.566120788153005527E+01    0.795068005078261808E+00   -0.333605036952669742E+01   -0.323212762021591526E+01   -0.607021462938372913E+01    0.288278252448212625E+05
    0.534740952216783853E+03   -0.554181549948750973E+01    0.749368219135584379E+00   -0.318948684199752108E+01   -0.335680893260324176E+01   -0.541123354626278186E+01    0.288278281580195726E+05
    0.509197012023252512E+03   -0.598886469216282258E+01    0.697252840405730212E+00   -0.154436900127602872E+01   -0.219757408921732811E+01   -0.712672490480869669E+01    0.288278373300412895E+05
    0.505339136213307370E+03   -0.581443363418931725E+01    0.815762532607527624E+00   -0.131735461236405982E+01   -0.244252184214744528E+01   -0.578645222656140223E+01    0.288278375718230018E+05
    0.575415332411978738E+03   -0.458863313272331297E+01    0.824680698808196166E+00   -0.346626458421461781E+01   -0.318708207272447464E+01   -0.701170561832458006E+01    0.288278807148597116E+05
    0.565348749465112292E+03   -0.470186901992833750E+01    0.814135442460365288E+00   -0.222563281109534294E+01   -0.355512083426551229E+01   -0.613449774749771670E+01    0.288279032889814480E+05
    0.531755146446173285E+03   -0.518904057627898041E+01    0.831321915786802368E+00   -0.248849842485476191E+01   -0.265820812552232866E+01   -0.488219902864136568E+01    0.288279251586442952E+05
    0.547251088192668476E+03   -0.516582144350557382E+01    0.789462198775518598E+00   -0.298856655294771656E+01   -0.459538186760693357E+01   -0.628969065310826103E+01    0.288279764549843967E+05
    0.492308921581919151E+03   -0.590803242185161448E+01    0.782519251413632544E+00   -0.171430244296743783E+01   -0.304673489125921204E+01   -0.380595799811808710E+01    0.288279766326118333E+05
    0.595596726351240363E+03   -0.448514729397665857E+01    0.764676787254778279E+00   -0.305692715823110461E+01   -0.345104905839867904E+01   -0.782521811680418811E+01    0.288279785661073474E+05
    0.536082630668267370E+03   -0.520230622033561030E+01    0.812728740023172858E+00   -0.123117348469982169E+01   -0.318811016274840231E+01   -0.437945887729525118E+01    0.288279828076275080E+05
    0.528736951831736974E+03   -0.537705140339676646E+01    0.784758344635581029E+00   -0.171960138377205585E+01   -0.158676367489585068E+01   -0.706593464604719568E+01    0.288279897180678745E+05
    0.514296917928067728E+03   -0.551138247699827133E+01    0.811065185838905967E+00   -0.198554130173750920E+01   -0.362286704146243110E+01   -0.574475846109233679E+01    0.288280098793463731E+05
    0.518362406567600374E+03   -0.552179632307149326E+01    0.809748737255823303E+00   -0.294679183745601936E+01   -0.448033222559458899E+01   -0.673531335564390332E+01    0.288280141479261038E+05
    0.509573462201501115E+03   -0.581901186660918235E+01    0.734593115178986622E+00   -0.208536466793380004E+01   -0.419351415758810653E+01   -0.747956043938015647E+01    0.288280333139137074E+05
    0.552091720014013958E+03   -0.535606367438432684E+01    0.724713500482529804E+00   -0.326163005661792482E+01   -0.295219160117773693E+01   -0.583362239075642819E+01    0.288280343206625221E+05
    0.492903943066114891E+03   -0.594263854388864488E+01    0.797473377364694813E+00   -0.267969172924436272E+01   -0.340791572593886904E+01   -0.519083997547670695E+01    0.288280373385530984E+05
    0.577419000951461157E+03   -0.477193699883629918E+01    0.777995473686837635E+00   -0.348838764544610402E+01   -0.371116048202939552E+01   -0.548464600964517501E+01    0.288280422175906388E+05
    0.539428197513022269E+03   -0.520314472992075672E+01    0.806427073011213857E+00   -0.318328646074701460E+01   -0.348287417190578186E+01   -0.630494520836260008E+01    0.288280459509382708E+05
    0.502789460733778185E+03   -0.555439370476089511E+01    0.833163077577001476E+00   -0.236888804191236790E+01   -0.366781812322901413E+01   -0.536892534530048415E+01    0.288280579394158485E+05
    0.506699692593491591E+03   -0.587170742278980740E+01    0.776550249134162929E+00   -0.297874326231164144E+01   -0.329478634214910482E+01   -0.670825054434226775E+01    0.288280821263055914E+05
    0.508251263062765929E+03   -0.578309643527580075E+01    0.799125890650593251E+00   -0.279173592023768968E+01   -0.172444301104974418E+01   -0.717359143522792486E+01    0.288280833591646151E+05
    0.577225424228691622E+03   -0.471999745309757746E+01    0.807298310967295207E+00   -0.327725336414581125E+01   -0.459220944175909729E+01   -0.644408742535450685E+01    0.288280916223956665E+05
    0.528696839588945409E+03   -0.520991301261849404E+01    0.803407261615197155E+00   -0.261029892963785848E+01   -0.315078503507693419E+01   -0.430622965891013187E+01    0.288280962870108415E+05
    0.549720653946956190E+03   -0.551614238309079319E+01    0.781694496910991465E+00   -0.979567278390885754E+00   -0.218956808156978688E+01   -0.326410188605179119E+01    0.288281063781903613E+05
    0.566396440472886979E+03   -0.491974988596193796E+01    0.771777720066679773E+00   -0.297116138617964154E+01   -0.493431295014882654E+01   -0.641656014123129914E+01    0.288281083662197016E+05
    0.531477157530855152E+03   -0.553052783687888372E+01    0.745159651781362786E+00   -0.276300702366183337E+01   -0.434331510924503483E+01   -0.565144479659461219E+01    0.288281217905363228E+05
    0.572081827447985233E+03   -0.439183340422157542E+01    0.858879857176175765E+00   -0.206395523880288945E+01   -0.231407629916966950E+01   -0.538177585405073078E+01    0.288281299569175681E+05
    0.567400222493811611E+03   -0.520145843519192308E+01    0.710926825431996257E+00   -0.344197315399868753E+01   -0.389420103767304937E+01   -0.762510353318677403E+01    0.288281403160076698E+05
    0.515597680277548875E+03   -0.543983261672755880E+01    0.829599220347866373E+00   -0.179045981634979157E+01   -0.276937894958012443E+01   -0.577200838362787572E+01    0.288281452229864954E+05
    0.544070207658966410E+03   -0.473605967407208439E+01    0.875568116079889602E+00   -0.158365435893671336E+01   -0.305316027843050364E+01   -0.717888168484238509E+01    0.288281480199133075E+05
    0.527423896308544954E+03   -0.572269479754537791E+01    0.723506911009044185E+00   -0.254236919823576191E+01   -0.322698727254000151E+01   -0.545583100818730582E+01    0.288281587386097017E+05
    0.545437975975524864E+03   -0.469657207193901627E+01    0.892569270257604019E+00   -0.219649131335581149E+01   -0.283267929894410919E+01   -0.662980121008127465E+01    0.288281650780378186E+05
    0.538338629189983180E+03   -0.557987465019020057E+01    0.713673520234190284E+00   -0.265526823050560612E+01   -0.366408370730339161E+01   -0.781970295359329359E+01    0.288281669710823771E+05
    0.545862322542653033E+03   -0.511764903504485691E+01    0.760726635761281411E+00   -0.204195065697933487E+01   -0.348894174094355591E+01   -0.709193941567602160E+01    0.288281756054051730E+05
    0.554867486833137718E+03   -0.476088987240534145E+01    0.843436731459126787E+00   -0.260119721074915944E+01   -0.434349672337110349E+01   -0.551252021147235638E+01    0.288281987969696020E+05
    0.542472818651701459E+03   -0.521519685710752334E+01    0.820676447428414613E+00   -0.110820634973472831E+01   -0.301147523482500112E+01   -0.476478595164349450E+01    0.288282056969194637E+05
    0.561954327047038078E+03   -0.452996056583832818E+01    0.871919620111439642E+00   -0.264189082613270809E+01   -0.394151357804864144E+01   -0.721746233161334771E+01    0.288282200558839068E+05
    0.546513612503899594E+03   -0.489971977276512316E+01    0.807806981087138554E+00   -0.230651161038392605E+01   -0.220165401567985697E+01   -0.496816388489756200E+01    0.288282209544926336E+05
    0.545581907718994671E+03   -0.516611938705620855E+01    0.771219318330280235E+00   -0.136586982345821362E+01   -0.239165454353888940E+01   -0.548984033939028571E+01    0.288282253786676774E+05
    0.564006788320015062E+03   -0.515938764834277386E+01    0.735763924936511882E+00   -0.346302312926185785E+01   -0.332838880613319610E+01   -0.607625927060435878E+01    0.288282346355902628E+05
    0.564006788320015062E+03   -0.515938764834277386E+01    0.735763924936511882E+00   -0.346302312926185785E+01   -0.332838880613319610E+01   -0.607625927060435878E+01    0.288282346355902628E+05
    0.522559063240111414E+03   -0.557461642311990069E+01    0.740363925685918134E+00   -0.230170029873883042E+01   -0.394276142404754104E+01   -0.480355958223718549E+01    0.288282366957821505E+05
    0.522559063240111414E+03   -0.557461642311990069E+01    0.740363925685918134E+00   -0.230170029873883042E+01   -0.394276142404754104E+01   -0.480355958223718549E+01    0.288282366957821505E+05
    0.510755466918906848E+03   -0.556634106250390381E+01    0.812197829998874687E+00   -0.275876021470544064E+01   -0.425994442290216213E+01   -0.565044609437004031E+01    0.288282442474687559E+05
    0.490559464187616186E+03   -0.588204178619877815E+01    0.809388852252799329E+00   -0.274094232229266499E+01   -0.314356829183843978E+01   -0.512553395699161030E+01    0.288282487662269050E+05
    0.490559464187616186E+03   -0.588204178619877815E+01    0.809388852252799329E+00   -0.274094232229266499E+01   -0.314356829183843978E+01   -0.512553395699161030E+01    0.288282487662269050E+05
    0.557804125604314663E+03   -0.479289360136477249E+01    0.826589510774477176E+00   -0.196818806729997497E+01   -0.179788432298442835E+01   -0.547674163315067641E+01    0.288282618566229721E+05
    0.549937067607695553E+03   -0.507715073627786229E+01    0.752294327119964357E+00   -0.275545185704714246E+01   -0.362580599490644850E+01   -0.727427227523880227E+01    0.288282636122360091E+05
    0.544403743793227932E+03   -0.524167688057294523E+01    0.752737496012179208E+00   -0.173167302351221863E+01   -0.162989232780215598E+01   -0.546311437229777574E+01    0.288282638690241183E+05
    0.559674130928702994E+03   -0.495851433207449066E+01    0.796802296372966845E+00   -0.334725091985186030E+01   -0.359174697570494139E+01   -0.550216389332950229E+01    0.288282716514254353E+05
    0.527200251970857835E+03   -0.509486930056840404E+01    0.849687513077669543E+00   -0.267261679086916804E+01   -0.274950127023464219E+01   -0.749412937775249954E+01    0.288282786334025186E+05
    0.518779209251077191E+03   -0.553055281892067807E+01    0.786274100969583611E+00   -0.258815137095452030E+01   -0.210722350303942640E+01   -0.465390960258801378E+01    0.288282836685003058E+05
    0.514878303898444301E+03   -0.559934620210738743E+01    0.736432290442546988E+00   -0.169393465962275958E+01   -0.246852878864852787E+01   -0.573000539112653939E+01    0.288282861536510100E+05
    0.560915986199090867E+03   -0.501911087706638082E+01    0.736807171268385797E+00   -0.257557481304826830E+01   -0.349447956795050896E+01   -0.654004165840929996E+01    0.288282922155411215E+05
    0.494427138896789870E+03   -0.566472274966544287E+01    0.825624442346566845E+00   -0.243239045261005860E+01   -0.339445473885059457E+01   -0.698132128369982485E+01    0.288282967121803085E+05
    0.555551860223023368E+03   -0.473292491322741160E+01    0.841866273428330869E+00   -0.277099754112860985E+01   -0.453286398600876872E+01   -0.738062966154222178E+01    0.288283038344956913E+05
    0.555551860223023368E+03   -0.473292491322741160E+01    0.841866273428330869E+00   -0.277099754112860985E+01   -0.453286398600876872E+01   -0.738062966154222178E+01    0.288283038344956913E+05
    0.534720608814915408E+03   -0.542627750941642972E+01    0.746840179384804514E+00   -0.252671259127073355E+01   -0.313713247780486792E+01   -0.465090733822756341E+01    0.288283072485951634E+05
    0.545864056650890120E+03   -0.540185326798710186E+01    0.711616460155993891E+00   -0.272680941897744855E+01   -0.325729000526597190E+01   -0.558965844051897776E+01    0.288283089940296850E+05
    0.498093480758136650E+03   -0.588435712701995417E+01    0.777722927141279774E+00   -0.206381911408550600E+01   -0.430566892599835960E+01   -0.630762930905713937E+01    0.288283166546805587E+05
    0.498093480758136650E+03   -0.588435712701995417E+01    0.777722927141279774E+00   -0.206381911408550600E+01   -0.430566892599835960E+01   -0.630762930905713937E+01    0.288283166546805587E+05
    0.542741171406473541E+03   -0.527018180744867770E+01    0.760202638004642051E+00   -0.167572690408319769E+01   -0.166617694202705291E+01   -0.413623618056970876E+01    0.288283285429421267E+05
    0.511669513720050759E+03   -0.547145520924387530E+01    0.838917937112690582E+00   -0.152607838993559497E+01   -0.285987848350066454E+01   -0.626802173931038986E+01    0.288283328254826883E+05
    0.511669513720050759E+03   -0.547145520924387530E+01    0.838917937112690582E+00   -0.152607838993559497E+01   -0.285987848350066454E+01   -0.626802173931038986E+01    0.288283328254826883E+05
    0.536609715704007272E+03   -0.569716444332554950E+01    0.702065108566940821E+00   -0.324583201396149423E+01   -0.297351568135834299E+01   -0.612404465127446507E+01    0.288283389086946263E+05
    0.520058407293974028E+03   -0.541142758808796120E+01    0.764056605175480463E+00   -0.204262609603214962E+01   -0.223137377387802882E+01   -0.570014267990415835E+01    0.288283426290987263E+05
    0.589637985830536422E+03   -0.477882208372802886E+01    0.746641366151671204E+00   -0.348897319137553907E+01   -0.412001526709288513E+01   -0.771410158092052711E+01    0.288283463962644419E+05
    0.557945126782777265E+03   -0.491534876380332442E+01    0.771778881007834761E+00   -0.238538851925256257E+01   -0.264253023491014982E+01   -0.450234685833651938E+01    0.288283743708832044E+05
    0.494814205010917760E+03   -0.585965961290209592E+01    0.808010708905623432E+00   -0.250239504663479462E+01   -0.342694109919975887E+01   -0.496140428121499610E+01    0.288283889462656698E+05
    0.514547244790518789E+03   -0.548406314443618115E+01    0.820337976916407530E+00   -0.307681286756585681E+01   -0.327788402058096207E+01   -0.635598990466954561E+01    0.288283889871349493E+05
    0.502543444261075251E+03   -0.572146104694445601E+01    0.782781323221836023E+00   -0.209473140599556373E+01   -0.204825196756096783E+01   -0.704165936257727676E+01    0.288283946603995428E+05
    0.502543444261075251E+03   -0.572146104694445601E+01    0.782781323221836023E+00   -0.209473140599556373E+01   -0.204825196756096783E+01   -0.704165936257727676E+01    0.288283946603995428E+05
    0.523340451620228464E+03   -0.539552983057074442E+01    0.780121900884776065E+00   -0.267663565034193152E+01   -0.435718089005070830E+01   -0.513248036002470620E+01    0.288283949948016852E+05
    0.521734631237784924E+03   -0.511565769310668550E+01    0.866777581868787284E+00   -0.189892958993541683E+01   -0.263246661843978558E+01   -0.632698086186979314E+01    0.288283990258038648E+05
    0.544784531542578861E+03   -0.559881976081886812E+01    0.698545904142314766E+00   -0.324675668243549786E+01   -0.410192824340030349E+01   -0.624653443920695839E+01    0.288284012564845725E+05
    0.544784531542578861E+03   -0.559881976081886812E+01    0.698545904142314766E+00   -0.324675668243549786E+01   -0.410192824340030349E+01   -0.624653443920695839E+01    0.288284012564845725E+05
    0.512109039824319893E+03   -0.532510543745360643E+01    0.854494091976233161E+00   -0.212413584726660254E+01   -0.312210447061438412E+01   -0.719011792810321904E+01    0.288284053786947152E+05
    0.512109039824319893E+03   -0.532510543745360643E+01    0.854494091976233161E+00   -0.212413584726660254E+01   -0.312210447061438412E+01   -0.719011792810321904E+01    0.288284053786947152E+05
    0.564754597842223689E+03   -0.502950038793457388E+01    0.736880450372570772E+00   -0.273040787202547897E+01   -0.337955075418902684E+01   -0.687709165445808868E+01    0.288284212057298428E+05
    0.558421252879434292E+03   -0.471870135962884607E+01    0.836763912851630653E+00   -0.192370499443030241E+01   -0.227302557342948663E+01   -0.438078648935483805E+01    0.288284222589296915E+05
    0.534359539104225405E+03   -0.554192656884115298E+01    0.728182874349419973E+00   -0.258300667267073791E+01   -0.252063261947296624E+01   -0.760752585493968425E+01    0.288284265716888331E+05
    0.499651975472123809E+03   -0.568789971610768319E+01    0.824923352741011917E+00   -0.224324838558836070E+01   -0.305372947082343682E+01   -0.671996747022652041E+01    0.288284296559541981E+05
    0.527852030623456017E+03   -0.526266025358444711E+01    0.761803951223932962E+00   -0.199392494042914503E+01   -0.300606508625752600E+01   -0.633576817163782913E+01    0.288284319051823695E+05
    0.584706519876457037E+03   -0.457403629219777930E+01    0.818464317717590761E+00   -0.337686586931344568E+01   -0.415129505148131450E+01   -0.694427619415417929E+01    0.288284470498939954E+05
    0.499311133764710064E+03   -0.580597415504195968E+01    0.794336370668295322E+00   -0.306613488563140191E+01   -0.345138763748421606E+01   -0.580973939039740994E+01    0.288284471706106669E+05
    0.532769068838522230E+03   -0.559382979350978982E+01    0.738094526218164737E+00   -0.285408045259397181E+01   -0.476039027794633895E+01   -0.652030967322631039E+01    0.288284532275980928E+05
    0.531596716773879962E+03   -0.539845363917247667E+01    0.742294005916073196E+00   -0.160961203579469281E+01   -0.175766864528508737E+01   -0.594829296796074924E+01    0.288284665177276802E+05
    0.494091231073409119E+03   -0.598342779421323101E+01    0.776369193053665474E+00   -0.275071909065359055E+01   -0.288150280084851129E+01   -0.462994139095104806E+01    0.288284706654286274E+05
    0.521975621040522924E+03   -0.568319875132811703E+01    0.708884479388127819E+00   -0.170594346141682340E+01   -0.245530749880893584E+01   -0.577765639651376528E+01    0.288284772323645302E+05
    0.539102170562845345E+03   -0.514227154978311329E+01    0.817260804880479474E+00   -0.302272226281698408E+01   -0.379937817202330752E+01   -0.669770394572350103E+01    0.288284877617387101E+05
    0.497027959749904255E+03   -0.587283394355276211E+01    0.769784676812878099E+00   -0.264131974605934516E+01   -0.377902629002221691E+01   -0.566006883137950378E+01    0.288284944800929152E+05
    0.536595256025761273E+03   -0.536441192023204838E+01    0.776412637009347373E+00   -0.175022843414917428E+01   -0.143598063766823891E+01   -0.757885885600220632E+01    0.288285075467039060E+05
    0.526581148333545912E+03   -0.573058919194533978E+01    0.729734041191303473E+00   -0.271898053041746035E+01   -0.445063990829342160E+01   -0.755919236423396956E+01    0.288285142137834191E+05
    0.539543206971687255E+03   -0.560773153619885623E+01    0.710926431937146441E+00   -0.296938366964381384E+01   -0.345734844978073408E+01   -0.664361380681241354E+01    0.288285309389547219E+05
    0.539543206971687255E+03   -0.560773153619885623E+01    0.710926431937146441E+00   -0.296938366964381384E+01   -0.345734844978073408E+01   -0.664361380681241354E+01    0.288285309389547219E+05
    0.517169519713795353E+03   -0.585045289598867235E+01    0.737060814631495087E+00   -0.287015811964962975E+01   -0.417190088305029683E+01   -0.499304920685151821E+01    0.288285349983169799E+05
    0.540871629701542247E+03   -0.497710198084231603E+01    0.805441397363784395E+00   -0.166142522923271407E+01   -0.273025622809335555E+01   -0.741592925207312881E+01    0.288285436197919007E+05
    0.520798018067425346E+03   -0.550461368076351931E+01    0.758539695925890767E+00   -0.257763460342143613E+01   -0.254919200522704070E+01   -0.603736455825886420E+01    0.288285439125678167E+05
    0.520798018067425346E+03   -0.550461368076351931E+01    0.758539695925890767E+00   -0.257763460342143613E+01   -0.254919200522704070E+01   -0.603736455825886420E+01    0.288285439125678167E+05
    0.547428651802057630E+03   -0.478568887123571685E+01    0.852897504386315397E+00   -0.207054354028011289E+01   -0.321628074339977932E+01   -0.437356551737831012E+01    0.288285503981733309E+05
    0.547663489775245125E+03   -0.486116424370467470E+01    0.841202909478114269E+00   -0.290909095922380789E+01   -0.254593479726004546E+01   -0.688975033021803984E+01    0.288285508136066637E+05
    0.547663489775245125E+03   -0.486116424370467470E+01    0.841202909478114269E+00   -0.290909095922380789E+01   -0.254593479726004546E+01   -0.688975033021803984E+01    0.288285508136066637E+05
    0.544233401365553277E+03   -0.536634698928844056E+01    0.723690530028399115E+00   -0.290265184417091060E+01   -0.285988346752150324E+01   -0.546556110102703219E+01    0.288285566272804790E+05
    0.544233401365553277E+03   -0.536634698928844056E+01    0.723690530028399115E+00   -0.290265184417091060E+01   -0.285988346752150324E+01   -0.546556110102703219E+01    0.288285566272804790E+05
    0.506251752689839350E+03   -0.576259795241897876E+01    0.798045904563328135E+00   -0.202460315478492525E+01   -0.177870368291062242E+01   -0.429309192500770287E+01    0.288285898730890040E+05
    0.492301783581426491E+03   -0.579435603542852284E+01    0.825993657202592546E+00   -0.225644583146771627E+01   -0.327849745919882185E+01   -0.548024103476830504E+01    0.288285950785496534E+05
    0.492301783581426491E+03   -0.579435603542852284E+01    0.825993657202592546E+00   -0.225644583146771627E+01   -0.327849745919882185E+01   -0.548024103476830504E+01    0.288285950785496534E+05
    0.510176552274538153E+03   -0.588945430621264077E+01    0.752613442251528042E+00   -0.330523479061649184E+01   -0.431260140104872480E+01   -0.619368510247362813E+01    0.288286046311652026E+05
    0.523018131020117835E+03   -0.534716339557876807E+01    0.772487516582288425E+00   -0.198168944192810681E+01   -0.353645579330954707E+01   -0.604527699377079308E+01    0.288286189056190124E+05
    0.569375582921715136E+03   -0.468333432665780869E+01    0.785725136243527356E+00   -0.270076404652774293E+01   -0.281300598977767979E+01   -0.520086583797444924E+01    0.288286197284553928E+05
    0.555711849411527623E+03   -0.476618806961401109E+01    0.848788107397768221E+00   -0.173819249955737121E+01   -0.208806482131153892E+01   -0.701865439231859156E+01    0.288286201342116510E+05
    0.558836833045379649E+03   -0.510510171269330026E+01    0.764199698228187452E+00   -0.336493907993249497E+01   -0.466295934225709985E+01   -0.685536364235180873E+01    0.288286248779103589E+05
    0.596288407395342574E+03   -0.419771297067118176E+01    0.840474088163776556E+00   -0.269807727735988934E+01   -0.378561545753782092E+01   -0.637388636176869561E+01    0.288286289196017533E+05
    0.550539470364230056E+03   -0.510990276865462612E+01    0.744159223777937195E+00   -0.224717017702462840E+01   -0.235940179947637230E+01   -0.730980989563941552E+01    0.288286387725970344E+05
    0.528091739660744224E+03   -0.521391590975650487E+01    0.803694964937150980E+00   -0.241711276445628087E+01   -0.433669234191596686E+01   -0.703791461419320274E+01    0.288286400602154245E+05
    0.531191322479737096E+03   -0.510388721875061169E+01    0.842272973840824224E+00   -0.287148650191983901E+01   -0.309955660826405577E+01   -0.795711794498607539E+01    0.288286416845831482E+05
    0.559078498317460912E+03   -0.484072503289540634E+01    0.812140664461581840E+00   -0.160175724534751662E+01   -0.177707878027586386E+01   -0.696334379311350471E+01    0.288286438088721952E+05
    0.518105557607485821E+03   -0.575991099928441219E+01    0.746743368561698428E+00   -0.233275718732249615E+01   -0.220712627864318200E+01   -0.772025019717264449E+01    0.288286460400818214E+05
    0.565806134524504500E+03   -0.473033575159453523E+01    0.798924607887005700E+00   -0.283579542780547111E+01   -0.422701971724193015E+01   -0.510214834939527240E+01    0.288286478394231563E+05
    0.522743367199559088E+03   -0.506074238432322510E+01    0.865112285438940476E+00   -0.204229345269961460E+01   -0.290215047738731968E+01   -0.707920994770041201E+01    0.288286520763998051E+05
    0.517842841914233531E+03   -0.519455483118782979E+01    0.863260672240184657E+00   -0.200829171343547763E+01   -0.242197989638710620E+01   -0.782102919933514418E+01    0.288286631675267708E+05
    0.517842841914233531E+03   -0.519455483118782979E+01    0.863260672240184657E+00   -0.200829171343547763E+01   -0.242197989638710620E+01   -0.782102919933514418E+01    0.288286631675267708E+05
    0.532754355411330039E+03   -0.504701827666009706E+01    0.857977934631780181E+00   -0.242499113602397820E+01   -0.234426547810492369E+01   -0.607942147450553350E+01    0.288286645621958487E+05
    0.532210993442105632E+03   -0.505287580734929431E+01    0.855250521984202927E+00   -0.257063616358045177E+01   -0.248532103148974315E+01   -0.656295757332747876E+01    0.288286694049708094E+05
    0.532210993442105632E+03   -0.505287580734929431E+01    0.855250521984202927E+00   -0.257063616358045177E+01   -0.248532103148974315E+01   -0.656295757332747876E+01    0.288286694049708094E+05
    0.512769928036457145E+03   -0.590246545203183359E+01    0.718230984045775234E+00   -0.237920272007035383E+01   -0.227086893606369955E+01   -0.432809973294914574E+01    0.288286853308541104E+05
    0.527602842024707456E+03   -0.558453845410372995E+01    0.714769263721225845E+00   -0.222504288296378583E+01   -0.252646568209767075E+01   -0.485695979952191248E+01    0.288286862437917516E+05
    0.562199236782000071E+03   -0.475937603934707898E+01    0.791527713590414073E+00   -0.213768908768276233E+01   -0.232460993476702882E+01   -0.561226115477995080E+01    0.288287031018609741E+05
    0.562199236782000071E+03   -0.475937603934707898E+01    0.791527713590414073E+00   -0.213768908768276233E+01   -0.232460993476702882E+01   -0.561226115477995080E+01    0.288287031018609741E+05
    0.558987585203561935E+03   -0.461814790061249436E+01    0.857117659296336765E+00   -0.267564238356181239E+01   -0.256765715672375094E+01   -0.704200219043467524E+01    0.288287143257321586E+05
    0.532560020211506412E+03   -0.574912821362386062E+01    0.693057271057559876E+00   -0.308228070070179516E+01   -0.325036218007234723E+01   -0.785752720740422106E+01    0.288287169970697505E+05
    0.523958641198977489E+03   -0.548650387030933384E+01    0.767902491039513135E+00   -0.226047007869379968E+01   -0.409663457143402177E+01   -0.683028497506585630E+01    0.288287225060452256E+05
    0.523958641198977489E+03   -0.548650387030933384E+01    0.767902491039513135E+00   -0.226047007869379968E+01   -0.409663457143402177E+01   -0.683028497506585630E+01    0.288287225060452256E+05
    0.520413122952110484E+03   -0.569173505474088604E+01    0.753168640093887398E+00   -0.246239977748979655E+01   -0.175081808805315386E+01   -0.480844341407176579E+01    0.288287251328867751E+05
    0.524917311412903359E+03   -0.536566836314423590E+01    0.789789005520442955E+00   -0.177385444593509156E+01   -0.288614927621279183E+01   -0.422567856126823838E+01    0.288287338013520639E+05
    0.552171405486928052E+03   -0.522490148035075030E+01    0.750097438937846084E+00   -0.298487787738512456E+01   -0.276309900816311416E+01   -0.797417682247394843E+01    0.288287422085655635E+05
    0.509105752095614491E+03   -0.589085365874206701E+01    0.743478605428850137E+00   -0.284813102692203124E+01   -0.466325982924609761E+01   -0.558276542253354080E+01    0.288287455259782728E+05
    0.520792745816356842E+03   -0.563583848449459524E+01    0.753681310728366638E+00   -0.150121111540677976E+01   -0.275623516174746275E+01   -0.605839033495531254E+01    0.288287457764272149E+05
    0.566706562301266331E+03   -0.466988064020428162E+01    0.823627383743068320E+00   -0.259129595133550783E+01   -0.261341906244112643E+01   -0.699859506189619029E+01    0.288287492495952902E+05
    0.518188652730778131E+03   -0.594767945316567737E+01    0.721088380811587104E+00   -0.215771536432905187E+01   -0.157274328915621897E+01   -0.596179347376270563E+01    0.288287539942558797E+05
    0.518188652730778131E+03   -0.594767945316567737E+01    0.721088380811587104E+00   -0.215771536432905187E+01   -0.157274328915621897E+01   -0.596179347376270563E+01    0.288287539942558797E+05
    0.543119548930682186E+03   -0.501994909453593685E+01    0.787514486484672149E+00   -0.207153122520475108E+01   -0.377085647618652509E+01   -0.720975184755610510E+01    0.288287864529883882E+05
    0.501847376449282137E+03   -0.585998251325786246E+01    0.790411405278004353E+00   -0.218794123025677489E+01   -0.268845223826188917E+01   -0.713826923115423639E+01    0.288288005594151655E+05
    0.543030402175436734E+03   -0.474323753581149976E+01    0.864761729979961702E+00   -0.194058765942053046E+01   -0.268282078191250228E+01   -0.554936519583058452E+01    0.288288006675203214E+05
    0.567353908734187257E+03   -0.472829560810350547E+01    0.770869214304940376E+00   -0.252418753370030835E+01   -0.275922672950265735E+01   -0.602977503386571989E+01    0.288288088827804495E+05
    0.513542381906890341E+03   -0.595001258043765180E+01    0.732527234740452782E+00   -0.284291946405499552E+01   -0.405801270115704860E+01   -0.617764239221815981E+01    0.288288113152941733E+05
    0.513542381906890341E+03   -0.595001258043765180E+01    0.732527234740452782E+00   -0.284291946405499552E+01   -0.405801270115704860E+01   -0.617764239221815981E+01    0.288288113152941733E+05
    0.551205286236812867E+03   -0.474428084751801737E+01    0.833133911333061805E+00   -0.246648848463033321E+01   -0.364933736576828505E+01   -0.651391452021935091E+01    0.288288165016671046E+05
    0.551205286236812867E+03   -0.474428084751801737E+01    0.833133911333061805E+00   -0.246648848463033321E+01   -0.364933736576828505E+01   -0.651391452021935091E+01    0.288288165016671046E+05
    0.534859659236203811E+03   -0.499691062732493130E+01    0.816781418456344555E+00   -0.179930599690615622E+01   -0.337625447147441182E+01   -0.769750567751264292E+01    0.288288180372985917E+05
    0.532413017734537448E+03   -0.550567037099302947E+01    0.734735376897407533E+00   -0.137933706531593803E+01   -0.209992719533289485E+01   -0.473789396526620177E+01    0.288288327829377013E+05
    0.499468635090286909E+03   -0.585966116646489255E+01    0.796663912626679016E+00   -0.181639987704740413E+01   -0.283393618122689261E+01   -0.729396366462308343E+01    0.288288332901681351E+05
    0.522803774537083086E+03   -0.516151993693304334E+01    0.870766783811711687E+00   -0.169121069312093564E+01   -0.202370822453423305E+01   -0.652837864630225617E+01    0.288288524145588235E+05
    0.518019885592878836E+03   -0.587348412589631863E+01    0.728560400274539388E+00   -0.324930168700168043E+01   -0.437779845249214183E+01   -0.562131644137316222E+01    0.288288536236920481E+05
    0.518019885592878836E+03   -0.587348412589631863E+01    0.728560400274539388E+00   -0.324930168700168043E+01   -0.437779845249214183E+01   -0.562131644137316222E+01    0.288288536236920481E+05
    0.496897415265613063E+03   -0.587696040199496306E+01    0.800817332466295828E+00   -0.280909064086588689E+01   -0.311978535030176030E+01   -0.677129650244818748E+01    0.288288578700480612E+05
    0.496897415265613063E+03   -0.587696040199496306E+01    0.800817332466295828E+00   -0.280909064086588689E+01   -0.311978535030176030E+01   -0.677129650244818748E+01    0.288288578700480612E+05
    0.550192609125611057E+03   -0.495243127393004912E+01    0.810910318599177393E+00   -0.246018766863652427E+01   -0.296527820274667508E+01   -0.553715288911213577E+01    0.288288718710746616E+05
    0.517315443051079910E+03   -0.538272519168349106E+01    0.808616698642204090E+00   -0.196540901724286066E+01   -0.389300808958980582E+01   -0.641150013461281620E+01    0.288288754489780222E+05
    0.524167514311678133E+03   -0.519357186076409860E+01    0.817572723892710851E+00   -0.217328560218998046E+01   -0.400486205827393960E+01   -0.594059939846940921E+01    0.288288854340091784E+05
    0.563175239588465615E+03   -0.468898297566600242E+01    0.828502058764765792E+00   -0.233527408317139873E+01   -0.338555333537463010E+01   -0.712217264797046123E+01    0.288288981355664801E+05
    0.516424976245590301E+03   -0.574029406200473424E+01    0.709189968778860869E+00   -0.176153564752231073E+01   -0.249867081261170121E+01   -0.753026046026104456E+01    0.288289023277749984E+05
    0.516424976245590301E+03   -0.574029406200473424E+01    0.709189968778860869E+00   -0.176153564752231073E+01   -0.249867081261170121E+01   -0.753026046026104456E+01    0.288289023277749984E+05
